684.9713702220782 -105.68470354896493 18.08897901333977
694.4618066177189 -105.68470354896493 18.08897901333977
703.9522430133595 -105.68470354896493 18.08897901333977
713.4426794090002 -105.68470354896493 18.08897901333977
722.9331158046409 -105.68470354896493 18.08897901333977
732.4235522002815 -105.68470354896493 18.08897901333977
741.9139885959222 -105.68470354896493 18.08897901333977
751.4044249915629 -105.68470354896493 18.08897901333977
760.8948613872035 -105.68470354896493 18.08897901333977
770.3852977828442 -105.68470354896493 18.08897901333977
779.8757341784849 -105.68470354896493 18.08897901333977
665.990497430797 -95.40128270828143 18.08897901333977
675.4809338264375 -95.40128270828143 18.08897901333977
684.9713702220782 -95.40128270828143 18.08897901333977
694.4618066177189 -95.40128270828143 18.08897901333977
703.9522430133595 -95.40128270828143 18.08897901333977
713.4426794090002 -95.40128270828143 18.08897901333977
722.9331158046409 -95.40128270828143 18.08897901333977
732.4235522002815 -95.40128270828143 18.08897901333977
741.9139885959222 -95.40128270828143 18.08897901333977
751.4044249915629 -95.40128270828143 18.08897901333977
760.8948613872035 -95.40128270828143 18.08897901333977
770.3852977828442 -95.40128270828143 18.08897901333977
779.8757341784849 -95.40128270828143 18.08897901333977
789.3661705741255 -95.40128270828143 18.08897901333977
665.990497430797 -85.11786186759794 18.08897901333977
675.4809338264375 -85.11786186759794 18.08897901333977
684.9713702220782 -85.11786186759794 18.08897901333977
694.4618066177189 -85.11786186759794 18.08897901333977
703.9522430133595 -85.11786186759794 18.08897901333977
713.4426794090002 -85.11786186759794 18.08897901333977
722.9331158046409 -85.11786186759794 18.08897901333977
732.4235522002815 -85.11786186759794 18.08897901333977
741.9139885959222 -85.11786186759794 18.08897901333977
751.4044249915629 -85.11786186759794 18.08897901333977
760.8948613872035 -85.11786186759794 18.08897901333977
770.3852977828442 -85.11786186759794 18.08897901333977
779.8757341784849 -85.11786186759794 18.08897901333977
789.3661705741255 -85.11786186759794 18.08897901333977
665.990497430797 -74.83444102691443 18.08897901333977
675.4809338264375 -74.83444102691443 18.08897901333977
684.9713702220782 -74.83444102691443 18.08897901333977
694.4618066177189 -74.83444102691443 18.08897901333977
703.9522430133595 -74.83444102691443 18.08897901333977
713.4426794090002 -74.83444102691443 18.08897901333977
722.9331158046409 -74.83444102691443 18.08897901333977
732.4235522002815 -74.83444102691443 18.08897901333977
741.9139885959222 -74.83444102691443 18.08897901333977
751.4044249915629 -74.83444102691443 18.08897901333977
760.8948613872035 -74.83444102691443 18.08897901333977
770.3852977828442 -74.83444102691443 18.08897901333977
779.8757341784849 -74.83444102691443 18.08897901333977
665.990497430797 -64.55102018623093 18.08897901333977
675.4809338264375 -64.55102018623093 18.08897901333977
684.9713702220782 -64.55102018623093 18.08897901333977
694.4618066177189 -64.55102018623093 18.08897901333977
703.9522430133595 -64.55102018623093 18.08897901333977
713.4426794090002 -64.55102018623093 18.08897901333977
722.9331158046409 -64.55102018623093 18.08897901333977
732.4235522002815 -64.55102018623093 18.08897901333977
741.9139885959222 -64.55102018623093 18.08897901333977
751.4044249915629 -64.55102018623093 18.08897901333977
760.8948613872035 -64.55102018623093 18.08897901333977
770.3852977828442 -64.55102018623093 18.08897901333977
779.8757341784849 -64.55102018623093 18.08897901333977
665.990497430797 -54.26759934554743 18.08897901333977
675.4809338264375 -54.26759934554743 18.08897901333977
684.9713702220782 -54.26759934554743 18.08897901333977
694.4618066177189 -54.26759934554743 18.08897901333977
703.9522430133595 -54.26759934554743 18.08897901333977
713.4426794090002 -54.26759934554743 18.08897901333977
722.9331158046409 -54.26759934554743 18.08897901333977
732.4235522002815 -54.26759934554743 18.08897901333977
741.9139885959222 -54.26759934554743 18.08897901333977
751.4044249915629 -54.26759934554743 18.08897901333977
760.8948613872035 -54.26759934554743 18.08897901333977
770.3852977828442 -54.26759934554743 18.08897901333977
779.8757341784849 -54.26759934554743 18.08897901333977
694.4618066177189 -115.96812438964844 27.133468520017928
703.9522430133595 -115.96812438964844 27.133468520017928
741.9139885959222 -115.96812438964844 27.133468520017928
751.4044249915629 -115.96812438964844 27.133468520017928
684.9713702220782 -105.68470354896493 27.133468520017928
694.4618066177189 -105.68470354896493 27.133468520017928
703.9522430133595 -105.68470354896493 27.133468520017928
713.4426794090002 -105.68470354896493 27.133468520017928
722.9331158046409 -105.68470354896493 27.133468520017928
732.4235522002815 -105.68470354896493 27.133468520017928
741.9139885959222 -105.68470354896493 27.133468520017928
751.4044249915629 -105.68470354896493 27.133468520017928
760.8948613872035 -105.68470354896493 27.133468520017928
684.9713702220782 -95.40128270828143 27.133468520017928
694.4618066177189 -95.40128270828143 27.133468520017928
703.9522430133595 -95.40128270828143 27.133468520017928
713.4426794090002 -95.40128270828143 27.133468520017928
722.9331158046409 -95.40128270828143 27.133468520017928
732.4235522002815 -95.40128270828143 27.133468520017928
741.9139885959222 -95.40128270828143 27.133468520017928
751.4044249915629 -95.40128270828143 27.133468520017928
760.8948613872035 -95.40128270828143 27.133468520017928
684.9713702220782 -85.11786186759794 27.133468520017928
694.4618066177189 -85.11786186759794 27.133468520017928
703.9522430133595 -85.11786186759794 27.133468520017928
713.4426794090002 -85.11786186759794 27.133468520017928
722.9331158046409 -85.11786186759794 27.133468520017928
732.4235522002815 -85.11786186759794 27.133468520017928
741.9139885959222 -85.11786186759794 27.133468520017928
751.4044249915629 -85.11786186759794 27.133468520017928
760.8948613872035 -85.11786186759794 27.133468520017928
684.9713702220782 -74.83444102691443 27.133468520017928
694.4618066177189 -74.83444102691443 27.133468520017928
703.9522430133595 -74.83444102691443 27.133468520017928
713.4426794090002 -74.83444102691443 27.133468520017928
722.9331158046409 -74.83444102691443 27.133468520017928
732.4235522002815 -74.83444102691443 27.133468520017928
741.9139885959222 -74.83444102691443 27.133468520017928
751.4044249915629 -74.83444102691443 27.133468520017928
760.8948613872035 -74.83444102691443 27.133468520017928
684.9713702220782 -64.55102018623093 27.133468520017928
694.4618066177189 -64.55102018623093 27.133468520017928
703.9522430133595 -64.55102018623093 27.133468520017928
713.4426794090002 -64.55102018623093 27.133468520017928
722.9331158046409 -64.55102018623093 27.133468520017928
732.4235522002815 -64.55102018623093 27.133468520017928
741.9139885959222 -64.55102018623093 27.133468520017928
751.4044249915629 -64.55102018623093 27.133468520017928
760.8948613872035 -64.55102018623093 27.133468520017928
694.4618066177189 -115.96812438964844 36.17795802669608
703.9522430133595 -115.96812438964844 36.17795802669608
741.9139885959222 -115.96812438964844 36.17795802669608
751.4044249915629 -115.96812438964844 36.17795802669608
684.9713702220782 -105.68470354896493 36.17795802669608
694.4618066177189 -105.68470354896493 36.17795802669608
703.9522430133595 -105.68470354896493 36.17795802669608
713.4426794090002 -105.68470354896493 36.17795802669608
722.9331158046409 -105.68470354896493 36.17795802669608
732.4235522002815 -105.68470354896493 36.17795802669608
741.9139885959222 -105.68470354896493 36.17795802669608
751.4044249915629 -105.68470354896493 36.17795802669608
760.8948613872035 -105.68470354896493 36.17795802669608
684.9713702220782 -95.40128270828143 36.17795802669608
694.4618066177189 -95.40128270828143 36.17795802669608
703.9522430133595 -95.40128270828143 36.17795802669608
713.4426794090002 -95.40128270828143 36.17795802669608
722.9331158046409 -95.40128270828143 36.17795802669608
732.4235522002815 -95.40128270828143 36.17795802669608
741.9139885959222 -95.40128270828143 36.17795802669608
751.4044249915629 -95.40128270828143 36.17795802669608
760.8948613872035 -95.40128270828143 36.17795802669608
684.9713702220782 -85.11786186759794 36.17795802669608
694.4618066177189 -85.11786186759794 36.17795802669608
703.9522430133595 -85.11786186759794 36.17795802669608
713.4426794090002 -85.11786186759794 36.17795802669608
722.9331158046409 -85.11786186759794 36.17795802669608
732.4235522002815 -85.11786186759794 36.17795802669608
741.9139885959222 -85.11786186759794 36.17795802669608
751.4044249915629 -85.11786186759794 36.17795802669608
760.8948613872035 -85.11786186759794 36.17795802669608
684.9713702220782 -74.83444102691443 36.17795802669608
694.4618066177189 -74.83444102691443 36.17795802669608
703.9522430133595 -74.83444102691443 36.17795802669608
713.4426794090002 -74.83444102691443 36.17795802669608
722.9331158046409 -74.83444102691443 36.17795802669608
732.4235522002815 -74.83444102691443 36.17795802669608
741.9139885959222 -74.83444102691443 36.17795802669608
751.4044249915629 -74.83444102691443 36.17795802669608
760.8948613872035 -74.83444102691443 36.17795802669608
684.9713702220782 -64.55102018623093 36.17795802669608
694.4618066177189 -64.55102018623093 36.17795802669608
703.9522430133595 -64.55102018623093 36.17795802669608
713.4426794090002 -64.55102018623093 36.17795802669608
722.9331158046409 -64.55102018623093 36.17795802669608
732.4235522002815 -64.55102018623093 36.17795802669608
741.9139885959222 -64.55102018623093 36.17795802669608
751.4044249915629 -64.55102018623093 36.17795802669608
760.8948613872035 -64.55102018623093 36.17795802669608
694.4618066177189 -115.96812438964844 45.22244753337424
703.9522430133595 -115.96812438964844 45.22244753337424
741.9139885959222 -115.96812438964844 45.22244753337424
751.4044249915629 -115.96812438964844 45.22244753337424
684.9713702220782 -105.68470354896493 45.22244753337424
694.4618066177189 -105.68470354896493 45.22244753337424
703.9522430133595 -105.68470354896493 45.22244753337424
713.4426794090002 -105.68470354896493 45.22244753337424
722.9331158046409 -105.68470354896493 45.22244753337424
732.4235522002815 -105.68470354896493 45.22244753337424
741.9139885959222 -105.68470354896493 45.22244753337424
751.4044249915629 -105.68470354896493 45.22244753337424
760.8948613872035 -105.68470354896493 45.22244753337424
684.9713702220782 -95.40128270828143 45.22244753337424
694.4618066177189 -95.40128270828143 45.22244753337424
703.9522430133595 -95.40128270828143 45.22244753337424
713.4426794090002 -95.40128270828143 45.22244753337424
722.9331158046409 -95.40128270828143 45.22244753337424
732.4235522002815 -95.40128270828143 45.22244753337424
741.9139885959222 -95.40128270828143 45.22244753337424
751.4044249915629 -95.40128270828143 45.22244753337424
760.8948613872035 -95.40128270828143 45.22244753337424
684.9713702220782 -85.11786186759794 45.22244753337424
694.4618066177189 -85.11786186759794 45.22244753337424
703.9522430133595 -85.11786186759794 45.22244753337424
713.4426794090002 -85.11786186759794 45.22244753337424
722.9331158046409 -85.11786186759794 45.22244753337424
732.4235522002815 -85.11786186759794 45.22244753337424
741.9139885959222 -85.11786186759794 45.22244753337424
751.4044249915629 -85.11786186759794 45.22244753337424
760.8948613872035 -85.11786186759794 45.22244753337424
684.9713702220782 -74.83444102691443 45.22244753337424
694.4618066177189 -74.83444102691443 45.22244753337424
703.9522430133595 -74.83444102691443 45.22244753337424
713.4426794090002 -74.83444102691443 45.22244753337424
722.9331158046409 -74.83444102691443 45.22244753337424
732.4235522002815 -74.83444102691443 45.22244753337424
741.9139885959222 -74.83444102691443 45.22244753337424
751.4044249915629 -74.83444102691443 45.22244753337424
760.8948613872035 -74.83444102691443 45.22244753337424
684.9713702220782 -64.55102018623093 45.22244753337424
694.4618066177189 -64.55102018623093 45.22244753337424
703.9522430133595 -64.55102018623093 45.22244753337424
713.4426794090002 -64.55102018623093 45.22244753337424
722.9331158046409 -64.55102018623093 45.22244753337424
732.4235522002815 -64.55102018623093 45.22244753337424
741.9139885959222 -64.55102018623093 45.22244753337424
751.4044249915629 -64.55102018623093 45.22244753337424
760.8948613872035 -64.55102018623093 45.22244753337424
694.4618066177189 -115.96812438964844 54.2669370400524
703.9522430133595 -115.96812438964844 54.2669370400524
741.9139885959222 -115.96812438964844 54.2669370400524
751.4044249915629 -115.96812438964844 54.2669370400524
684.9713702220782 -105.68470354896493 54.2669370400524
694.4618066177189 -105.68470354896493 54.2669370400524
703.9522430133595 -105.68470354896493 54.2669370400524
713.4426794090002 -105.68470354896493 54.2669370400524
722.9331158046409 -105.68470354896493 54.2669370400524
732.4235522002815 -105.68470354896493 54.2669370400524
741.9139885959222 -105.68470354896493 54.2669370400524
751.4044249915629 -105.68470354896493 54.2669370400524
760.8948613872035 -105.68470354896493 54.2669370400524
684.9713702220782 -95.40128270828143 54.2669370400524
694.4618066177189 -95.40128270828143 54.2669370400524
703.9522430133595 -95.40128270828143 54.2669370400524
713.4426794090002 -95.40128270828143 54.2669370400524
722.9331158046409 -95.40128270828143 54.2669370400524
732.4235522002815 -95.40128270828143 54.2669370400524
741.9139885959222 -95.40128270828143 54.2669370400524
751.4044249915629 -95.40128270828143 54.2669370400524
760.8948613872035 -95.40128270828143 54.2669370400524
684.9713702220782 -85.11786186759794 54.2669370400524
694.4618066177189 -85.11786186759794 54.2669370400524
703.9522430133595 -85.11786186759794 54.2669370400524
713.4426794090002 -85.11786186759794 54.2669370400524
722.9331158046409 -85.11786186759794 54.2669370400524
732.4235522002815 -85.11786186759794 54.2669370400524
741.9139885959222 -85.11786186759794 54.2669370400524
751.4044249915629 -85.11786186759794 54.2669370400524
760.8948613872035 -85.11786186759794 54.2669370400524
684.9713702220782 -74.83444102691443 54.2669370400524
694.4618066177189 -74.83444102691443 54.2669370400524
703.9522430133595 -74.83444102691443 54.2669370400524
713.4426794090002 -74.83444102691443 54.2669370400524
722.9331158046409 -74.83444102691443 54.2669370400524
732.4235522002815 -74.83444102691443 54.2669370400524
741.9139885959222 -74.83444102691443 54.2669370400524
751.4044249915629 -74.83444102691443 54.2669370400524
760.8948613872035 -74.83444102691443 54.2669370400524
684.9713702220782 -64.55102018623093 54.2669370400524
694.4618066177189 -64.55102018623093 54.2669370400524
703.9522430133595 -64.55102018623093 54.2669370400524
713.4426794090002 -64.55102018623093 54.2669370400524
722.9331158046409 -64.55102018623093 54.2669370400524
732.4235522002815 -64.55102018623093 54.2669370400524
741.9139885959222 -64.55102018623093 54.2669370400524
751.4044249915629 -64.55102018623093 54.2669370400524
760.8948613872035 -64.55102018623093 54.2669370400524
694.4618066177189 -115.96812438964844 63.31142654673055
703.9522430133595 -115.96812438964844 63.31142654673055
741.9139885959222 -115.96812438964844 63.31142654673055
751.4044249915629 -115.96812438964844 63.31142654673055
684.9713702220782 -105.68470354896493 63.31142654673055
694.4618066177189 -105.68470354896493 63.31142654673055
703.9522430133595 -105.68470354896493 63.31142654673055
713.4426794090002 -105.68470354896493 63.31142654673055
722.9331158046409 -105.68470354896493 63.31142654673055
732.4235522002815 -105.68470354896493 63.31142654673055
741.9139885959222 -105.68470354896493 63.31142654673055
751.4044249915629 -105.68470354896493 63.31142654673055
760.8948613872035 -105.68470354896493 63.31142654673055
684.9713702220782 -95.40128270828143 63.31142654673055
694.4618066177189 -95.40128270828143 63.31142654673055
703.9522430133595 -95.40128270828143 63.31142654673055
713.4426794090002 -95.40128270828143 63.31142654673055
722.9331158046409 -95.40128270828143 63.31142654673055
732.4235522002815 -95.40128270828143 63.31142654673055
741.9139885959222 -95.40128270828143 63.31142654673055
751.4044249915629 -95.40128270828143 63.31142654673055
760.8948613872035 -95.40128270828143 63.31142654673055
684.9713702220782 -85.11786186759794 63.31142654673055
694.4618066177189 -85.11786186759794 63.31142654673055
703.9522430133595 -85.11786186759794 63.31142654673055
713.4426794090002 -85.11786186759794 63.31142654673055
722.9331158046409 -85.11786186759794 63.31142654673055
732.4235522002815 -85.11786186759794 63.31142654673055
741.9139885959222 -85.11786186759794 63.31142654673055
751.4044249915629 -85.11786186759794 63.31142654673055
760.8948613872035 -85.11786186759794 63.31142654673055
684.9713702220782 -74.83444102691443 63.31142654673055
694.4618066177189 -74.83444102691443 63.31142654673055
703.9522430133595 -74.83444102691443 63.31142654673055
713.4426794090002 -74.83444102691443 63.31142654673055
722.9331158046409 -74.83444102691443 63.31142654673055
732.4235522002815 -74.83444102691443 63.31142654673055
741.9139885959222 -74.83444102691443 63.31142654673055
751.4044249915629 -74.83444102691443 63.31142654673055
760.8948613872035 -74.83444102691443 63.31142654673055
684.9713702220782 -64.55102018623093 63.31142654673055
694.4618066177189 -64.55102018623093 63.31142654673055
703.9522430133595 -64.55102018623093 63.31142654673055
713.4426794090002 -64.55102018623093 63.31142654673055
722.9331158046409 -64.55102018623093 63.31142654673055
732.4235522002815 -64.55102018623093 63.31142654673055
741.9139885959222 -64.55102018623093 63.31142654673055
751.4044249915629 -64.55102018623093 63.31142654673055
760.8948613872035 -64.55102018623093 63.31142654673055
694.4618066177189 -115.96812438964844 72.3559160534087
703.9522430133595 -115.96812438964844 72.3559160534087
741.9139885959222 -115.96812438964844 72.3559160534087
751.4044249915629 -115.96812438964844 72.3559160534087
684.9713702220782 -105.68470354896493 72.3559160534087
694.4618066177189 -105.68470354896493 72.3559160534087
703.9522430133595 -105.68470354896493 72.3559160534087
713.4426794090002 -105.68470354896493 72.3559160534087
722.9331158046409 -105.68470354896493 72.3559160534087
732.4235522002815 -105.68470354896493 72.3559160534087
741.9139885959222 -105.68470354896493 72.3559160534087
751.4044249915629 -105.68470354896493 72.3559160534087
760.8948613872035 -105.68470354896493 72.3559160534087
684.9713702220782 -95.40128270828143 72.3559160534087
694.4618066177189 -95.40128270828143 72.3559160534087
703.9522430133595 -95.40128270828143 72.3559160534087
713.4426794090002 -95.40128270828143 72.3559160534087
722.9331158046409 -95.40128270828143 72.3559160534087
732.4235522002815 -95.40128270828143 72.3559160534087
741.9139885959222 -95.40128270828143 72.3559160534087
751.4044249915629 -95.40128270828143 72.3559160534087
760.8948613872035 -95.40128270828143 72.3559160534087
684.9713702220782 -85.11786186759794 72.3559160534087
694.4618066177189 -85.11786186759794 72.3559160534087
703.9522430133595 -85.11786186759794 72.3559160534087
713.4426794090002 -85.11786186759794 72.3559160534087
722.9331158046409 -85.11786186759794 72.3559160534087
732.4235522002815 -85.11786186759794 72.3559160534087
741.9139885959222 -85.11786186759794 72.3559160534087
751.4044249915629 -85.11786186759794 72.3559160534087
760.8948613872035 -85.11786186759794 72.3559160534087
684.9713702220782 -74.83444102691443 72.3559160534087
694.4618066177189 -74.83444102691443 72.3559160534087
703.9522430133595 -74.83444102691443 72.3559160534087
713.4426794090002 -74.83444102691443 72.3559160534087
722.9331158046409 -74.83444102691443 72.3559160534087
732.4235522002815 -74.83444102691443 72.3559160534087
741.9139885959222 -74.83444102691443 72.3559160534087
751.4044249915629 -74.83444102691443 72.3559160534087
760.8948613872035 -74.83444102691443 72.3559160534087
684.9713702220782 -64.55102018623093 72.3559160534087
694.4618066177189 -64.55102018623093 72.3559160534087
703.9522430133595 -64.55102018623093 72.3559160534087
713.4426794090002 -64.55102018623093 72.3559160534087
722.9331158046409 -64.55102018623093 72.3559160534087
732.4235522002815 -64.55102018623093 72.3559160534087
741.9139885959222 -64.55102018623093 72.3559160534087
751.4044249915629 -64.55102018623093 72.3559160534087
760.8948613872035 -64.55102018623093 72.3559160534087
694.4618066177189 -115.96812438964844 81.40040556008687
703.9522430133595 -115.96812438964844 81.40040556008687
741.9139885959222 -115.96812438964844 81.40040556008687
751.4044249915629 -115.96812438964844 81.40040556008687
694.4618066177189 -105.68470354896493 81.40040556008687
703.9522430133595 -105.68470354896493 81.40040556008687
713.4426794090002 -105.68470354896493 81.40040556008687
722.9331158046409 -105.68470354896493 81.40040556008687
732.4235522002815 -105.68470354896493 81.40040556008687
741.9139885959222 -105.68470354896493 81.40040556008687
751.4044249915629 -105.68470354896493 81.40040556008687
694.4618066177189 -95.40128270828143 81.40040556008687
703.9522430133595 -95.40128270828143 81.40040556008687
713.4426794090002 -95.40128270828143 81.40040556008687
722.9331158046409 -95.40128270828143 81.40040556008687
732.4235522002815 -95.40128270828143 81.40040556008687
741.9139885959222 -95.40128270828143 81.40040556008687
751.4044249915629 -95.40128270828143 81.40040556008687
694.4618066177189 -85.11786186759794 81.40040556008687
703.9522430133595 -85.11786186759794 81.40040556008687
713.4426794090002 -85.11786186759794 81.40040556008687
722.9331158046409 -85.11786186759794 81.40040556008687
732.4235522002815 -85.11786186759794 81.40040556008687
741.9139885959222 -85.11786186759794 81.40040556008687
751.4044249915629 -85.11786186759794 81.40040556008687
694.4618066177189 -74.83444102691443 81.40040556008687
703.9522430133595 -74.83444102691443 81.40040556008687
713.4426794090002 -74.83444102691443 81.40040556008687
722.9331158046409 -74.83444102691443 81.40040556008687
732.4235522002815 -74.83444102691443 81.40040556008687
741.9139885959222 -74.83444102691443 81.40040556008687
751.4044249915629 -74.83444102691443 81.40040556008687
694.4618066177189 -64.55102018623093 81.40040556008687
703.9522430133595 -64.55102018623093 81.40040556008687
713.4426794090002 -64.55102018623093 81.40040556008687
722.9331158046409 -64.55102018623093 81.40040556008687
732.4235522002815 -64.55102018623093 81.40040556008687
741.9139885959222 -64.55102018623093 81.40040556008687
751.4044249915629 -64.55102018623093 81.40040556008687
694.4618066177189 -115.96812438964844 90.44489506676503
703.9522430133595 -115.96812438964844 90.44489506676503
741.9139885959222 -115.96812438964844 90.44489506676503
751.4044249915629 -115.96812438964844 90.44489506676503
694.4618066177189 -105.68470354896493 90.44489506676503
703.9522430133595 -105.68470354896493 90.44489506676503
713.4426794090002 -105.68470354896493 90.44489506676503
722.9331158046409 -105.68470354896493 90.44489506676503
732.4235522002815 -105.68470354896493 90.44489506676503
741.9139885959222 -105.68470354896493 90.44489506676503
751.4044249915629 -105.68470354896493 90.44489506676503
694.4618066177189 -95.40128270828143 90.44489506676503
703.9522430133595 -95.40128270828143 90.44489506676503
713.4426794090002 -95.40128270828143 90.44489506676503
722.9331158046409 -95.40128270828143 90.44489506676503
732.4235522002815 -95.40128270828143 90.44489506676503
741.9139885959222 -95.40128270828143 90.44489506676503
751.4044249915629 -95.40128270828143 90.44489506676503
694.4618066177189 -85.11786186759794 90.44489506676503
703.9522430133595 -85.11786186759794 90.44489506676503
713.4426794090002 -85.11786186759794 90.44489506676503
722.9331158046409 -85.11786186759794 90.44489506676503
732.4235522002815 -85.11786186759794 90.44489506676503
741.9139885959222 -85.11786186759794 90.44489506676503
751.4044249915629 -85.11786186759794 90.44489506676503
694.4618066177189 -74.83444102691443 90.44489506676503
703.9522430133595 -74.83444102691443 90.44489506676503
713.4426794090002 -74.83444102691443 90.44489506676503
722.9331158046409 -74.83444102691443 90.44489506676503
732.4235522002815 -74.83444102691443 90.44489506676503
741.9139885959222 -74.83444102691443 90.44489506676503
751.4044249915629 -74.83444102691443 90.44489506676503
694.4618066177189 -64.55102018623093 90.44489506676503
703.9522430133595 -64.55102018623093 90.44489506676503
713.4426794090002 -64.55102018623093 90.44489506676503
722.9331158046409 -64.55102018623093 90.44489506676503
732.4235522002815 -64.55102018623093 90.44489506676503
741.9139885959222 -64.55102018623093 90.44489506676503
751.4044249915629 -64.55102018623093 90.44489506676503
694.4618066177189 -105.68470354896493 99.48938457344317
703.9522430133595 -105.68470354896493 99.48938457344317
713.4426794090002 -105.68470354896493 99.48938457344317
722.9331158046409 -105.68470354896493 99.48938457344317
732.4235522002815 -105.68470354896493 99.48938457344317
741.9139885959222 -105.68470354896493 99.48938457344317
751.4044249915629 -105.68470354896493 99.48938457344317
694.4618066177189 -95.40128270828143 99.48938457344317
703.9522430133595 -95.40128270828143 99.48938457344317
713.4426794090002 -95.40128270828143 99.48938457344317
722.9331158046409 -95.40128270828143 99.48938457344317
732.4235522002815 -95.40128270828143 99.48938457344317
741.9139885959222 -95.40128270828143 99.48938457344317
751.4044249915629 -95.40128270828143 99.48938457344317
694.4618066177189 -85.11786186759794 99.48938457344317
703.9522430133595 -85.11786186759794 99.48938457344317
713.4426794090002 -85.11786186759794 99.48938457344317
722.9331158046409 -85.11786186759794 99.48938457344317
732.4235522002815 -85.11786186759794 99.48938457344317
741.9139885959222 -85.11786186759794 99.48938457344317
751.4044249915629 -85.11786186759794 99.48938457344317
694.4618066177189 -74.83444102691443 99.48938457344317
703.9522430133595 -74.83444102691443 99.48938457344317
713.4426794090002 -74.83444102691443 99.48938457344317
722.9331158046409 -74.83444102691443 99.48938457344317
732.4235522002815 -74.83444102691443 99.48938457344317
741.9139885959222 -74.83444102691443 99.48938457344317
751.4044249915629 -74.83444102691443 99.48938457344317
703.9522430133595 -64.55102018623093 99.48938457344317
713.4426794090002 -64.55102018623093 99.48938457344317
722.9331158046409 -64.55102018623093 99.48938457344317
732.4235522002815 -64.55102018623093 99.48938457344317
741.9139885959222 -64.55102018623093 99.48938457344317
694.4618066177189 -105.68470354896493 108.53387408012134
703.9522430133595 -105.68470354896493 108.53387408012134
713.4426794090002 -105.68470354896493 108.53387408012134
722.9331158046409 -105.68470354896493 108.53387408012134
732.4235522002815 -105.68470354896493 108.53387408012134
741.9139885959222 -105.68470354896493 108.53387408012134
751.4044249915629 -105.68470354896493 108.53387408012134
694.4618066177189 -95.40128270828143 108.53387408012134
703.9522430133595 -95.40128270828143 108.53387408012134
713.4426794090002 -95.40128270828143 108.53387408012134
722.9331158046409 -95.40128270828143 108.53387408012134
732.4235522002815 -95.40128270828143 108.53387408012134
741.9139885959222 -95.40128270828143 108.53387408012134
751.4044249915629 -95.40128270828143 108.53387408012134
694.4618066177189 -85.11786186759794 108.53387408012134
703.9522430133595 -85.11786186759794 108.53387408012134
713.4426794090002 -85.11786186759794 108.53387408012134
722.9331158046409 -85.11786186759794 108.53387408012134
732.4235522002815 -85.11786186759794 108.53387408012134
741.9139885959222 -85.11786186759794 108.53387408012134
751.4044249915629 -85.11786186759794 108.53387408012134
694.4618066177189 -74.83444102691443 108.53387408012134
703.9522430133595 -74.83444102691443 108.53387408012134
713.4426794090002 -74.83444102691443 108.53387408012134
722.9331158046409 -74.83444102691443 108.53387408012134
732.4235522002815 -74.83444102691443 108.53387408012134
741.9139885959222 -74.83444102691443 108.53387408012134
751.4044249915629 -74.83444102691443 108.53387408012134
703.9522430133595 -64.55102018623093 108.53387408012134
713.4426794090002 -64.55102018623093 108.53387408012134
722.9331158046409 -64.55102018623093 108.53387408012134
732.4235522002815 -64.55102018623093 108.53387408012134
741.9139885959222 -64.55102018623093 108.53387408012134
703.9522430133595 -105.68470354896493 117.5783635867995
713.4426794090002 -105.68470354896493 117.5783635867995
722.9331158046409 -105.68470354896493 117.5783635867995
732.4235522002815 -105.68470354896493 117.5783635867995
741.9139885959222 -105.68470354896493 117.5783635867995
703.9522430133595 -95.40128270828143 117.5783635867995
713.4426794090002 -95.40128270828143 117.5783635867995
722.9331158046409 -95.40128270828143 117.5783635867995
732.4235522002815 -95.40128270828143 117.5783635867995
741.9139885959222 -95.40128270828143 117.5783635867995
703.9522430133595 -85.11786186759794 117.5783635867995
713.4426794090002 -85.11786186759794 117.5783635867995
722.9331158046409 -85.11786186759794 117.5783635867995
732.4235522002815 -85.11786186759794 117.5783635867995
741.9139885959222 -85.11786186759794 117.5783635867995
703.9522430133595 -74.83444102691443 117.5783635867995
713.4426794090002 -74.83444102691443 117.5783635867995
722.9331158046409 -74.83444102691443 117.5783635867995
732.4235522002815 -74.83444102691443 117.5783635867995
741.9139885959222 -74.83444102691443 117.5783635867995
703.9522430133595 -64.55102018623093 117.5783635867995
713.4426794090002 -64.55102018623093 117.5783635867995
732.4235522002815 -64.55102018623093 117.5783635867995
741.9139885959222 -64.55102018623093 117.5783635867995
703.9522430133595 -105.68470354896493 126.62285309347764
713.4426794090002 -105.68470354896493 126.62285309347764
722.9331158046409 -105.68470354896493 126.62285309347764
732.4235522002815 -105.68470354896493 126.62285309347764
741.9139885959222 -105.68470354896493 126.62285309347764
703.9522430133595 -95.40128270828143 126.62285309347764
713.4426794090002 -95.40128270828143 126.62285309347764
722.9331158046409 -95.40128270828143 126.62285309347764
732.4235522002815 -95.40128270828143 126.62285309347764
741.9139885959222 -95.40128270828143 126.62285309347764
703.9522430133595 -85.11786186759794 126.62285309347764
713.4426794090002 -85.11786186759794 126.62285309347764
722.9331158046409 -85.11786186759794 126.62285309347764
732.4235522002815 -85.11786186759794 126.62285309347764
741.9139885959222 -85.11786186759794 126.62285309347764
703.9522430133595 -74.83444102691443 126.62285309347764
713.4426794090002 -74.83444102691443 126.62285309347764
722.9331158046409 -74.83444102691443 126.62285309347764
732.4235522002815 -74.83444102691443 126.62285309347764
741.9139885959222 -74.83444102691443 126.62285309347764
703.9522430133595 -64.55102018623093 126.62285309347764
713.4426794090002 -64.55102018623093 126.62285309347764
732.4235522002815 -64.55102018623093 126.62285309347764
741.9139885959222 -64.55102018623093 126.62285309347764
703.9522430133595 -105.68470354896493 135.66734260015582
713.4426794090002 -105.68470354896493 135.66734260015582
722.9331158046409 -105.68470354896493 135.66734260015582
732.4235522002815 -105.68470354896493 135.66734260015582
741.9139885959222 -105.68470354896493 135.66734260015582
703.9522430133595 -95.40128270828143 135.66734260015582
713.4426794090002 -95.40128270828143 135.66734260015582
722.9331158046409 -95.40128270828143 135.66734260015582
732.4235522002815 -95.40128270828143 135.66734260015582
741.9139885959222 -95.40128270828143 135.66734260015582
703.9522430133595 -85.11786186759794 135.66734260015582
713.4426794090002 -85.11786186759794 135.66734260015582
722.9331158046409 -85.11786186759794 135.66734260015582
732.4235522002815 -85.11786186759794 135.66734260015582
741.9139885959222 -85.11786186759794 135.66734260015582
703.9522430133595 -74.83444102691443 135.66734260015582
713.4426794090002 -74.83444102691443 135.66734260015582
722.9331158046409 -74.83444102691443 135.66734260015582
732.4235522002815 -74.83444102691443 135.66734260015582
741.9139885959222 -74.83444102691443 135.66734260015582
703.9522430133595 -64.55102018623093 135.66734260015582
713.4426794090002 -64.55102018623093 135.66734260015582
732.4235522002815 -64.55102018623093 135.66734260015582
741.9139885959222 -64.55102018623093 135.66734260015582
703.9522430133595 -105.68470354896493 144.71183210683395
713.4426794090002 -105.68470354896493 144.71183210683395
722.9331158046409 -105.68470354896493 144.71183210683395
732.4235522002815 -105.68470354896493 144.71183210683395
741.9139885959222 -105.68470354896493 144.71183210683395
703.9522430133595 -95.40128270828143 144.71183210683395
713.4426794090002 -95.40128270828143 144.71183210683395
722.9331158046409 -95.40128270828143 144.71183210683395
732.4235522002815 -95.40128270828143 144.71183210683395
741.9139885959222 -95.40128270828143 144.71183210683395
703.9522430133595 -85.11786186759794 144.71183210683395
713.4426794090002 -85.11786186759794 144.71183210683395
722.9331158046409 -85.11786186759794 144.71183210683395
732.4235522002815 -85.11786186759794 144.71183210683395
741.9139885959222 -85.11786186759794 144.71183210683395
703.9522430133595 -74.83444102691443 144.71183210683395
713.4426794090002 -74.83444102691443 144.71183210683395
722.9331158046409 -74.83444102691443 144.71183210683395
732.4235522002815 -74.83444102691443 144.71183210683395
741.9139885959222 -74.83444102691443 144.71183210683395
703.9522430133595 -64.55102018623093 144.71183210683395
713.4426794090002 -64.55102018623093 144.71183210683395
732.4235522002815 -64.55102018623093 144.71183210683395
741.9139885959222 -64.55102018623093 144.71183210683395
703.9522430133595 -105.68470354896493 153.7563216135121
713.4426794090002 -105.68470354896493 153.7563216135121
722.9331158046409 -105.68470354896493 153.7563216135121
732.4235522002815 -105.68470354896493 153.7563216135121
741.9139885959222 -105.68470354896493 153.7563216135121
703.9522430133595 -95.40128270828143 153.7563216135121
713.4426794090002 -95.40128270828143 153.7563216135121
722.9331158046409 -95.40128270828143 153.7563216135121
732.4235522002815 -95.40128270828143 153.7563216135121
741.9139885959222 -95.40128270828143 153.7563216135121
703.9522430133595 -85.11786186759794 153.7563216135121
713.4426794090002 -85.11786186759794 153.7563216135121
722.9331158046409 -85.11786186759794 153.7563216135121
732.4235522002815 -85.11786186759794 153.7563216135121
741.9139885959222 -85.11786186759794 153.7563216135121
703.9522430133595 -74.83444102691443 153.7563216135121
713.4426794090002 -74.83444102691443 153.7563216135121
722.9331158046409 -74.83444102691443 153.7563216135121
732.4235522002815 -74.83444102691443 153.7563216135121
741.9139885959222 -74.83444102691443 153.7563216135121
703.9522430133595 -64.55102018623093 153.7563216135121
713.4426794090002 -64.55102018623093 153.7563216135121
732.4235522002815 -64.55102018623093 153.7563216135121
741.9139885959222 -64.55102018623093 153.7563216135121
703.9522430133595 -105.68470354896493 162.80081112019028
713.4426794090002 -105.68470354896493 162.80081112019028
722.9331158046409 -105.68470354896493 162.80081112019028
732.4235522002815 -105.68470354896493 162.80081112019028
741.9139885959222 -105.68470354896493 162.80081112019028
703.9522430133595 -95.40128270828143 162.80081112019028
713.4426794090002 -95.40128270828143 162.80081112019028
722.9331158046409 -95.40128270828143 162.80081112019028
732.4235522002815 -95.40128270828143 162.80081112019028
741.9139885959222 -95.40128270828143 162.80081112019028
703.9522430133595 -85.11786186759794 162.80081112019028
713.4426794090002 -85.11786186759794 162.80081112019028
722.9331158046409 -85.11786186759794 162.80081112019028
732.4235522002815 -85.11786186759794 162.80081112019028
741.9139885959222 -85.11786186759794 162.80081112019028
703.9522430133595 -74.83444102691443 162.80081112019028
713.4426794090002 -74.83444102691443 162.80081112019028
722.9331158046409 -74.83444102691443 162.80081112019028
732.4235522002815 -74.83444102691443 162.80081112019028
741.9139885959222 -74.83444102691443 162.80081112019028
703.9522430133595 -64.55102018623093 162.80081112019028
713.4426794090002 -64.55102018623093 162.80081112019028
732.4235522002815 -64.55102018623093 162.80081112019028
741.9139885959222 -64.55102018623093 162.80081112019028
703.9522430133595 -105.68470354896493 171.84530062686844
713.4426794090002 -105.68470354896493 171.84530062686844
722.9331158046409 -105.68470354896493 171.84530062686844
732.4235522002815 -105.68470354896493 171.84530062686844
741.9139885959222 -105.68470354896493 171.84530062686844
703.9522430133595 -95.40128270828143 171.84530062686844
713.4426794090002 -95.40128270828143 171.84530062686844
722.9331158046409 -95.40128270828143 171.84530062686844
732.4235522002815 -95.40128270828143 171.84530062686844
741.9139885959222 -95.40128270828143 171.84530062686844
703.9522430133595 -85.11786186759794 171.84530062686844
713.4426794090002 -85.11786186759794 171.84530062686844
722.9331158046409 -85.11786186759794 171.84530062686844
732.4235522002815 -85.11786186759794 171.84530062686844
741.9139885959222 -85.11786186759794 171.84530062686844
703.9522430133595 -74.83444102691443 171.84530062686844
713.4426794090002 -74.83444102691443 171.84530062686844
722.9331158046409 -74.83444102691443 171.84530062686844
732.4235522002815 -74.83444102691443 171.84530062686844
741.9139885959222 -74.83444102691443 171.84530062686844
703.9522430133595 -64.55102018623093 171.84530062686844
713.4426794090002 -64.55102018623093 171.84530062686844
732.4235522002815 -64.55102018623093 171.84530062686844
741.9139885959222 -64.55102018623093 171.84530062686844
703.9522430133595 -105.68470354896493 180.8897901335466
713.4426794090002 -105.68470354896493 180.8897901335466
722.9331158046409 -105.68470354896493 180.8897901335466
732.4235522002815 -105.68470354896493 180.8897901335466
741.9139885959222 -105.68470354896493 180.8897901335466
703.9522430133595 -95.40128270828143 180.8897901335466
713.4426794090002 -95.40128270828143 180.8897901335466
722.9331158046409 -95.40128270828143 180.8897901335466
732.4235522002815 -95.40128270828143 180.8897901335466
741.9139885959222 -95.40128270828143 180.8897901335466
703.9522430133595 -85.11786186759794 180.8897901335466
713.4426794090002 -85.11786186759794 180.8897901335466
722.9331158046409 -85.11786186759794 180.8897901335466
732.4235522002815 -85.11786186759794 180.8897901335466
741.9139885959222 -85.11786186759794 180.8897901335466
703.9522430133595 -74.83444102691443 180.8897901335466
713.4426794090002 -74.83444102691443 180.8897901335466
722.9331158046409 -74.83444102691443 180.8897901335466
732.4235522002815 -74.83444102691443 180.8897901335466
741.9139885959222 -74.83444102691443 180.8897901335466
703.9522430133595 -64.55102018623093 180.8897901335466
713.4426794090002 -64.55102018623093 180.8897901335466
732.4235522002815 -64.55102018623093 180.8897901335466
741.9139885959222 -64.55102018623093 180.8897901335466
703.9522430133595 -105.68470354896493 189.93427964022476
713.4426794090002 -105.68470354896493 189.93427964022476
722.9331158046409 -105.68470354896493 189.93427964022476
732.4235522002815 -105.68470354896493 189.93427964022476
741.9139885959222 -105.68470354896493 189.93427964022476
703.9522430133595 -95.40128270828143 189.93427964022476
713.4426794090002 -95.40128270828143 189.93427964022476
722.9331158046409 -95.40128270828143 189.93427964022476
732.4235522002815 -95.40128270828143 189.93427964022476
741.9139885959222 -95.40128270828143 189.93427964022476
703.9522430133595 -85.11786186759794 189.93427964022476
713.4426794090002 -85.11786186759794 189.93427964022476
722.9331158046409 -85.11786186759794 189.93427964022476
732.4235522002815 -85.11786186759794 189.93427964022476
741.9139885959222 -85.11786186759794 189.93427964022476
703.9522430133595 -74.83444102691443 189.93427964022476
713.4426794090002 -74.83444102691443 189.93427964022476
722.9331158046409 -74.83444102691443 189.93427964022476
732.4235522002815 -74.83444102691443 189.93427964022476
741.9139885959222 -74.83444102691443 189.93427964022476
703.9522430133595 -64.55102018623093 189.93427964022476
713.4426794090002 -64.55102018623093 189.93427964022476
732.4235522002815 -64.55102018623093 189.93427964022476
741.9139885959222 -64.55102018623093 189.93427964022476
703.9522430133595 -105.68470354896493 198.9787691469029
713.4426794090002 -105.68470354896493 198.9787691469029
722.9331158046409 -105.68470354896493 198.9787691469029
732.4235522002815 -105.68470354896493 198.9787691469029
741.9139885959222 -105.68470354896493 198.9787691469029
703.9522430133595 -95.40128270828143 198.9787691469029
713.4426794090002 -95.40128270828143 198.9787691469029
722.9331158046409 -95.40128270828143 198.9787691469029
732.4235522002815 -95.40128270828143 198.9787691469029
741.9139885959222 -95.40128270828143 198.9787691469029
703.9522430133595 -85.11786186759794 198.9787691469029
713.4426794090002 -85.11786186759794 198.9787691469029
722.9331158046409 -85.11786186759794 198.9787691469029
732.4235522002815 -85.11786186759794 198.9787691469029
741.9139885959222 -85.11786186759794 198.9787691469029
703.9522430133595 -74.83444102691443 198.9787691469029
713.4426794090002 -74.83444102691443 198.9787691469029
722.9331158046409 -74.83444102691443 198.9787691469029
732.4235522002815 -74.83444102691443 198.9787691469029
741.9139885959222 -74.83444102691443 198.9787691469029
703.9522430133595 -64.55102018623093 198.9787691469029
713.4426794090002 -64.55102018623093 198.9787691469029
732.4235522002815 -64.55102018623093 198.9787691469029
741.9139885959222 -64.55102018623093 198.9787691469029
703.9522430133595 -105.68470354896493 208.02325865358105
713.4426794090002 -105.68470354896493 208.02325865358105
722.9331158046409 -105.68470354896493 208.02325865358105
732.4235522002815 -105.68470354896493 208.02325865358105
741.9139885959222 -105.68470354896493 208.02325865358105
703.9522430133595 -95.40128270828143 208.02325865358105
713.4426794090002 -95.40128270828143 208.02325865358105
722.9331158046409 -95.40128270828143 208.02325865358105
732.4235522002815 -95.40128270828143 208.02325865358105
741.9139885959222 -95.40128270828143 208.02325865358105
703.9522430133595 -85.11786186759794 208.02325865358105
713.4426794090002 -85.11786186759794 208.02325865358105
722.9331158046409 -85.11786186759794 208.02325865358105
732.4235522002815 -85.11786186759794 208.02325865358105
741.9139885959222 -85.11786186759794 208.02325865358105
703.9522430133595 -74.83444102691443 208.02325865358105
713.4426794090002 -74.83444102691443 208.02325865358105
722.9331158046409 -74.83444102691443 208.02325865358105
732.4235522002815 -74.83444102691443 208.02325865358105
741.9139885959222 -74.83444102691443 208.02325865358105
703.9522430133595 -64.55102018623093 208.02325865358105
713.4426794090002 -64.55102018623093 208.02325865358105
732.4235522002815 -64.55102018623093 208.02325865358105
741.9139885959222 -64.55102018623093 208.02325865358105
703.9522430133595 -105.68470354896493 217.0677481602592
713.4426794090002 -105.68470354896493 217.0677481602592
722.9331158046409 -105.68470354896493 217.0677481602592
732.4235522002815 -105.68470354896493 217.0677481602592
741.9139885959222 -105.68470354896493 217.0677481602592
703.9522430133595 -95.40128270828143 217.0677481602592
713.4426794090002 -95.40128270828143 217.0677481602592
722.9331158046409 -95.40128270828143 217.0677481602592
732.4235522002815 -95.40128270828143 217.0677481602592
741.9139885959222 -95.40128270828143 217.0677481602592
703.9522430133595 -85.11786186759794 217.0677481602592
713.4426794090002 -85.11786186759794 217.0677481602592
722.9331158046409 -85.11786186759794 217.0677481602592
732.4235522002815 -85.11786186759794 217.0677481602592
741.9139885959222 -85.11786186759794 217.0677481602592
703.9522430133595 -74.83444102691443 217.0677481602592
713.4426794090002 -74.83444102691443 217.0677481602592
722.9331158046409 -74.83444102691443 217.0677481602592
732.4235522002815 -74.83444102691443 217.0677481602592
741.9139885959222 -74.83444102691443 217.0677481602592
703.9522430133595 -64.55102018623093 217.0677481602592
713.4426794090002 -64.55102018623093 217.0677481602592
732.4235522002815 -64.55102018623093 217.0677481602592
741.9139885959222 -64.55102018623093 217.0677481602592
703.9522430133595 -105.68470354896493 226.11223766693738
713.4426794090002 -105.68470354896493 226.11223766693738
722.9331158046409 -105.68470354896493 226.11223766693738
732.4235522002815 -105.68470354896493 226.11223766693738
741.9139885959222 -105.68470354896493 226.11223766693738
703.9522430133595 -95.40128270828143 226.11223766693738
713.4426794090002 -95.40128270828143 226.11223766693738
722.9331158046409 -95.40128270828143 226.11223766693738
732.4235522002815 -95.40128270828143 226.11223766693738
741.9139885959222 -95.40128270828143 226.11223766693738
703.9522430133595 -85.11786186759794 226.11223766693738
713.4426794090002 -85.11786186759794 226.11223766693738
722.9331158046409 -85.11786186759794 226.11223766693738
732.4235522002815 -85.11786186759794 226.11223766693738
741.9139885959222 -85.11786186759794 226.11223766693738
703.9522430133595 -74.83444102691443 226.11223766693738
713.4426794090002 -74.83444102691443 226.11223766693738
722.9331158046409 -74.83444102691443 226.11223766693738
732.4235522002815 -74.83444102691443 226.11223766693738
741.9139885959222 -74.83444102691443 226.11223766693738
703.9522430133595 -64.55102018623093 226.11223766693738
713.4426794090002 -64.55102018623093 226.11223766693738
732.4235522002815 -64.55102018623093 226.11223766693738
741.9139885959222 -64.55102018623093 226.11223766693738
703.9522430133595 -105.68470354896493 235.15672717361554
713.4426794090002 -105.68470354896493 235.15672717361554
722.9331158046409 -105.68470354896493 235.15672717361554
732.4235522002815 -105.68470354896493 235.15672717361554
741.9139885959222 -105.68470354896493 235.15672717361554
703.9522430133595 -95.40128270828143 235.15672717361554
713.4426794090002 -95.40128270828143 235.15672717361554
722.9331158046409 -95.40128270828143 235.15672717361554
732.4235522002815 -95.40128270828143 235.15672717361554
741.9139885959222 -95.40128270828143 235.15672717361554
703.9522430133595 -85.11786186759794 235.15672717361554
713.4426794090002 -85.11786186759794 235.15672717361554
722.9331158046409 -85.11786186759794 235.15672717361554
732.4235522002815 -85.11786186759794 235.15672717361554
741.9139885959222 -85.11786186759794 235.15672717361554
703.9522430133595 -74.83444102691443 235.15672717361554
713.4426794090002 -74.83444102691443 235.15672717361554
722.9331158046409 -74.83444102691443 235.15672717361554
732.4235522002815 -74.83444102691443 235.15672717361554
741.9139885959222 -74.83444102691443 235.15672717361554
703.9522430133595 -64.55102018623093 235.15672717361554
713.4426794090002 -64.55102018623093 235.15672717361554
732.4235522002815 -64.55102018623093 235.15672717361554
741.9139885959222 -64.55102018623093 235.15672717361554
703.9522430133595 -105.68470354896493 244.2012166802937
713.4426794090002 -105.68470354896493 244.2012166802937
722.9331158046409 -105.68470354896493 244.2012166802937
732.4235522002815 -105.68470354896493 244.2012166802937
741.9139885959222 -105.68470354896493 244.2012166802937
703.9522430133595 -95.40128270828143 244.2012166802937
713.4426794090002 -95.40128270828143 244.2012166802937
722.9331158046409 -95.40128270828143 244.2012166802937
732.4235522002815 -95.40128270828143 244.2012166802937
741.9139885959222 -95.40128270828143 244.2012166802937
703.9522430133595 -85.11786186759794 244.2012166802937
713.4426794090002 -85.11786186759794 244.2012166802937
722.9331158046409 -85.11786186759794 244.2012166802937
